ply
format ascii 1.0
element vertex 2128
property float x
property float y
property float z
property float temperature
end_header
0.45 -0.89 0.08 18.90
0.41 -0.91 0.08 19.60
0.35 -0.93 0.08 20.60
0.30 -0.95 0.08 20.00
0.25 -0.96 0.08 19.30
0.20 -0.98 0.09 19.80
0.14 -0.99 0.09 19.70
0.09 -0.99 0.09 19.80
0.03 -1.00 0.09 19.90
-0.03 -1.00 0.09 18.80
-0.09 -0.99 0.09 17.30
-0.14 -0.99 0.09 19.00
-0.20 -0.98 0.09 19.80
-0.25 -0.96 0.08 19.40
-0.30 -0.95 0.08 19.00
-0.35 -0.93 0.08 19.50
-0.41 -0.91 0.08 19.40
-0.45 -0.89 0.08 20.20
-0.50 -0.86 0.08 20.40
-0.54 -0.84 0.08 21.00
-0.58 -0.81 0.08 19.00
-0.61 -0.79 0.07 16.90
-0.65 -0.76 0.07 20.80
-0.68 -0.73 0.07 20.10
-0.71 -0.70 0.07 19.80
0.71 -0.70 0.02 20.50
0.68 -0.73 0.02 20.00
0.65 -0.76 0.02 19.40
0.62 -0.79 0.03 19.80
0.58 -0.81 0.03 20.20
0.54 -0.84 0.03 20.70
0.50 -0.87 0.03 19.90
0.45 -0.89 0.03 19.00
0.41 -0.91 0.03 20.60
0.36 -0.93 0.03 19.30
0.31 -0.95 0.03 19.90
0.25 -0.97 0.03 19.80
0.20 -0.98 0.03 19.80
0.14 -0.99 0.03 19.10
0.09 -1.00 0.03 18.90
0.03 -1.00 0.03 19.70
-0.03 -1.00 0.03 20.00
-0.09 -1.00 0.03 18.50
-0.14 -0.99 0.03 19.60
-0.20 -0.98 0.03 19.00
-0.25 -0.97 0.03 19.20
-0.31 -0.95 0.03 18.50
-0.36 -0.93 0.03 20.20
-0.41 -0.91 0.03 21.00
-0.45 -0.89 0.03 19.70
-0.50 -0.87 0.03 19.40
-0.54 -0.84 0.03 19.50
-0.58 -0.81 0.03 18.60
-0.62 -0.79 0.03 20.50
-0.65 -0.76 0.02 21.00
-0.68 -0.73 0.02 24.40
-0.71 -0.70 0.02 24.50
0.71 -0.70 -0.02 20.90
0.68 -0.73 -0.02 19.70
0.65 -0.76 -0.02 20.20
0.62 -0.79 -0.03 20.70
0.58 -0.81 -0.03 19.80
0.54 -0.84 -0.03 19.40
0.50 -0.87 -0.03 20.20
0.45 -0.89 -0.03 20.60
0.41 -0.91 -0.03 19.60
0.36 -0.93 -0.03 20.10
0.31 -0.95 -0.03 19.80
0.25 -0.97 -0.03 19.90
0.20 -0.98 -0.03 19.20
0.14 -0.99 -0.03 19.80
0.09 -1.00 -0.03 18.40
0.03 -1.00 -0.03 19.00
-0.03 -1.00 -0.03 20.00
-0.09 -1.00 -0.03 19.10
-0.14 -0.99 -0.03 18.80
-0.20 -0.98 -0.03 20.20
-0.25 -0.97 -0.03 19.40
-0.31 -0.95 -0.03 21.00
-0.36 -0.93 -0.03 20.20
-0.41 -0.91 -0.03 18.20
-0.45 -0.89 -0.03 19.40
-0.50 -0.87 -0.03 19.10
-0.54 -0.84 -0.03 20.80
-0.58 -0.81 -0.03 20.50
-0.62 -0.79 -0.03 20.00
-0.65 -0.76 -0.02 19.80
-0.68 -0.73 -0.02 24.70
-0.71 -0.70 -0.02 24.60
0.71 -0.70 -0.07 20.10
0.68 -0.73 -0.07 19.30
0.65 -0.76 -0.07 19.50
0.61 -0.79 -0.07 20.00
0.58 -0.81 -0.08 21.40
0.54 -0.84 -0.08 19.60
0.50 -0.86 -0.08 19.30
0.45 -0.89 -0.08 20.10
0.41 -0.91 -0.08 19.50
0.35 -0.93 -0.08 19.80
0.30 -0.95 -0.08 19.60
0.25 -0.96 -0.08 19.10
0.20 -0.98 -0.09 19.40
0.14 -0.99 -0.09 18.60
0.09 -0.99 -0.09 19.30
0.03 -1.00 -0.09 18.70
-0.03 -1.00 -0.09 19.20
-0.09 -0.99 -0.09 19.80
-0.14 -0.99 -0.09 19.50
-0.20 -0.98 -0.09 20.80
-0.25 -0.96 -0.08 18.00
-0.30 -0.95 -0.08 19.00
-0.35 -0.93 -0.08 19.50
-0.41 -0.91 -0.08 19.80
-0.45 -0.89 -0.08 18.40
-0.50 -0.86 -0.08 20.10
-0.54 -0.84 -0.08 20.60
-0.58 -0.81 -0.08 21.40
-0.61 -0.79 -0.07 19.40
-0.65 -0.76 -0.07 20.30
-0.68 -0.73 -0.07 18.40
-0.71 -0.70 -0.07 21.00
0.71 -0.70 -0.11 19.60
0.68 -0.72 -0.12 21.00
0.65 -0.75 -0.12 21.30
0.61 -0.78 -0.12 20.10
0.57 -0.81 -0.13 19.30
0.54 -0.84 -0.13 20.70
0.49 -0.86 -0.13 20.20
0.45 -0.88 -0.13 20.90
0.40 -0.90 -0.13 20.20
0.35 -0.93 -0.14 20.30
0.30 -0.94 -0.14 20.40
0.25 -0.96 -0.14 20.00
0.20 -0.97 -0.14 20.00
0.14 -0.98 -0.14 20.40
0.09 -0.99 -0.14 17.90
0.03 -0.99 -0.14 19.60
-0.03 -0.99 -0.14 19.70
-0.09 -0.99 -0.14 20.10
-0.14 -0.98 -0.14 19.90
-0.20 -0.97 -0.14 19.00
-0.25 -0.96 -0.14 19.10
-0.30 -0.94 -0.14 19.60
-0.35 -0.93 -0.14 21.00
-0.40 -0.90 -0.13 19.20
-0.45 -0.88 -0.13 17.80
-0.49 -0.86 -0.13 20.70
-0.54 -0.84 -0.13 19.10
-0.57 -0.81 -0.13 18.90
-0.61 -0.78 -0.12 19.50
-0.65 -0.75 -0.12 20.00
-0.68 -0.72 -0.12 19.50
-0.71 -0.70 -0.11 19.20
0.70 -0.69 -0.16 20.90
0.68 -0.72 -0.16 21.00
0.64 -0.75 -0.17 19.10
0.61 -0.78 -0.17 20.60
0.57 -0.80 -0.17 21.30
0.53 -0.83 -0.18 19.60
0.49 -0.85 -0.18 19.70
0.45 -0.88 -0.18 19.90
0.40 -0.90 -0.19 20.20
0.35 -0.92 -0.19 19.40
0.30 -0.93 -0.19 21.20
0.25 -0.95 -0.19 18.80
0.20 -0.96 -0.20 20.20
0.14 -0.97 -0.20 19.60
0.09 -0.98 -0.20 21.80
0.03 -0.98 -0.20 19.80
-0.03 -0.98 -0.20 21.20
-0.09 -0.98 -0.20 18.70
-0.14 -0.97 -0.20 19.40
-0.20 -0.96 -0.20 19.60
-0.25 -0.95 -0.19 19.00
-0.30 -0.93 -0.19 19.00
-0.35 -0.92 -0.19 19.00
-0.40 -0.90 -0.19 19.30
-0.45 -0.88 -0.18 19.40
-0.49 -0.85 -0.18 19.60
-0.53 -0.83 -0.18 17.70
-0.57 -0.80 -0.17 19.50
-0.61 -0.78 -0.17 19.50
-0.64 -0.75 -0.17 21.20
-0.68 -0.72 -0.16 20.00
-0.70 -0.69 -0.16 21.60
0.70 -0.69 -0.20 22.20
0.67 -0.71 -0.21 19.60
0.64 -0.74 -0.21 18.90
0.60 -0.77 -0.22 20.80
0.57 -0.79 -0.22 21.40
0.53 -0.82 -0.23 20.80
0.49 -0.84 -0.23 19.00
0.44 -0.86 -0.23 20.20
0.40 -0.89 -0.24 19.90
0.35 -0.90 -0.24 18.80
0.30 -0.92 -0.25 20.60
0.25 -0.94 -0.25 19.60
0.19 -0.95 -0.25 19.10
0.14 -0.96 -0.25 19.40
0.08 -0.96 -0.25 17.90
0.03 -0.97 -0.25 19.50
-0.03 -0.97 -0.25 18.90
-0.08 -0.96 -0.25 19.10
-0.14 -0.96 -0.25 20.10
-0.19 -0.95 -0.25 20.00
-0.25 -0.94 -0.25 19.90
-0.30 -0.92 -0.25 19.80
-0.35 -0.90 -0.24 19.30
-0.40 -0.89 -0.24 19.70
-0.44 -0.86 -0.23 18.90
-0.49 -0.84 -0.23 18.60
-0.53 -0.82 -0.23 19.40
-0.57 -0.79 -0.22 18.70
-0.60 -0.77 -0.22 19.60
-0.64 -0.74 -0.21 19.60
-0.67 -0.71 -0.21 24.90
-0.70 -0.69 -0.20 24.70
0.70 -0.68 -0.25 19.90
0.67 -0.70 -0.25 20.60
0.63 -0.73 -0.26 19.50
0.60 -0.75 -0.26 19.20
0.56 -0.78 -0.27 20.10
0.52 -0.81 -0.28 20.20
0.48 -0.83 -0.28 19.10
0.44 -0.85 -0.28 21.00
0.39 -0.87 -0.29 19.90
0.35 -0.89 -0.29 19.60
0.30 -0.91 -0.30 20.00
0.25 -0.92 -0.30 19.00
0.19 -0.93 -0.30 20.40
0.14 -0.94 -0.30 19.30
0.08 -0.95 -0.30 18.60
0.03 -0.95 -0.31 18.60
-0.03 -0.95 -0.31 19.00
-0.08 -0.95 -0.30 20.20
-0.14 -0.94 -0.30 19.40
-0.19 -0.93 -0.30 20.00
-0.25 -0.92 -0.30 17.80
-0.30 -0.91 -0.30 21.00
-0.35 -0.89 -0.29 19.70
-0.39 -0.87 -0.29 19.70
-0.44 -0.85 -0.28 20.10
-0.48 -0.83 -0.28 19.70
-0.52 -0.81 -0.28 20.20
-0.56 -0.78 -0.27 19.40
-0.60 -0.75 -0.26 18.60
-0.63 -0.73 -0.26 21.00
-0.67 -0.70 -0.25 20.50
-0.70 -0.68 -0.25 19.00
0.69 -0.67 -0.29 19.10
0.66 -0.69 -0.30 20.00
0.63 -0.72 -0.30 20.60
0.59 -0.74 -0.31 20.40
0.56 -0.77 -0.32 19.40
0.52 -0.79 -0.32 21.40
0.48 -0.81 -0.33 17.50
0.44 -0.84 -0.33 20.50
0.39 -0.86 -0.34 18.90
0.34 -0.88 -0.34 19.40
0.29 -0.89 -0.35 18.40
0.24 -0.90 -0.35 19.30
0.19 -0.92 -0.35 19.10
0.14 -0.93 -0.35 19.30
0.08 -0.93 -0.35 20.20
0.03 -0.93 -0.36 20.90
-0.03 -0.93 -0.36 19.40
-0.08 -0.93 -0.35 18.60
-0.14 -0.93 -0.35 19.30
-0.19 -0.92 -0.35 18.20
-0.24 -0.90 -0.35 18.40
-0.29 -0.89 -0.35 17.80
-0.34 -0.88 -0.34 20.00
-0.39 -0.86 -0.34 18.70
-0.44 -0.84 -0.33 19.00
-0.48 -0.81 -0.33 20.30
-0.52 -0.79 -0.32 20.60
-0.56 -0.77 -0.32 20.60
-0.59 -0.74 -0.31 19.70
-0.63 -0.72 -0.30 19.40
-0.66 -0.69 -0.30 19.00
-0.69 -0.67 -0.29 20.20
0.68 -0.65 -0.33 19.80
0.65 -0.68 -0.34 20.90
0.62 -0.70 -0.35 21.40
0.59 -0.73 -0.35 20.10
0.55 -0.75 -0.36 20.30
0.51 -0.78 -0.37 20.10
0.47 -0.80 -0.37 20.20
0.43 -0.82 -0.38 18.80
0.38 -0.84 -0.38 19.70
0.34 -0.86 -0.39 18.60
0.29 -0.87 -0.39 19.60
0.24 -0.89 -0.40 20.50
0.19 -0.90 -0.40 19.40
0.13 -0.90 -0.40 19.90
0.08 -0.91 -0.41 21.00
0.03 -0.91 -0.41 20.40
-0.03 -0.91 -0.41 20.10
-0.08 -0.91 -0.41 19.00
-0.13 -0.90 -0.40 20.60
-0.19 -0.90 -0.40 20.40
-0.24 -0.89 -0.40 19.90
-0.29 -0.87 -0.39 19.80
-0.34 -0.86 -0.39 19.20
-0.38 -0.84 -0.38 19.00
-0.43 -0.82 -0.38 19.80
-0.47 -0.80 -0.37 17.80
-0.51 -0.78 -0.37 18.20
-0.55 -0.75 -0.36 22.00
-0.59 -0.73 -0.35 19.40
-0.62 -0.70 -0.35 19.00
-0.65 -0.68 -0.34 18.60
-0.68 -0.65 -0.33 20.40
0.67 -0.64 -0.37 19.60
0.64 -0.67 -0.38 19.20
0.61 -0.69 -0.39 18.80
0.58 -0.71 -0.39 20.40
0.54 -0.74 -0.40 19.40
0.50 -0.76 -0.41 21.70
0.47 -0.78 -0.42 19.40
0.42 -0.80 -0.42 20.60
0.38 -0.82 -0.43 19.40
0.33 -0.84 -0.44 18.50
0.28 -0.85 -0.44 19.80
0.23 -0.86 -0.44 20.30
0.18 -0.88 -0.45 19.20
0.13 -0.88 -0.45 19.00
0.08 -0.89 -0.45 17.80
0.03 -0.89 -0.45 20.20
-0.03 -0.89 -0.45 19.80
-0.08 -0.89 -0.45 19.20
-0.13 -0.88 -0.45 18.70
-0.18 -0.88 -0.45 19.50
-0.23 -0.86 -0.44 18.60
-0.28 -0.85 -0.44 20.20
-0.33 -0.84 -0.44 18.90
-0.38 -0.82 -0.43 18.70
-0.42 -0.80 -0.42 20.00
-0.47 -0.78 -0.42 18.00
-0.50 -0.76 -0.41 19.60
-0.54 -0.74 -0.40 20.10
-0.58 -0.71 -0.39 21.10
-0.61 -0.69 -0.39 19.60
-0.64 -0.67 -0.38 25.20
-0.67 -0.64 -0.37 24.90
0.66 -0.63 -0.41 20.00
0.64 -0.65 -0.42 19.80
0.60 -0.67 -0.42 21.00
0.57 -0.70 -0.43 19.30
0.54 -0.72 -0.44 18.60
0.50 -0.74 -0.45 18.70
0.46 -0.76 -0.46 19.80
0.42 -0.78 -0.47 20.40
0.37 -0.80 -0.47 18.60
0.33 -0.81 -0.48 18.40
0.28 -0.83 -0.48 19.40
0.23 -0.84 -0.49 19.50
0.18 -0.85 -0.49 20.00
0.13 -0.86 -0.49 18.40
0.08 -0.86 -0.50 19.00
0.03 -0.87 -0.50 17.80
-0.03 -0.87 -0.50 20.20
-0.08 -0.86 -0.50 20.40
-0.13 -0.86 -0.49 18.50
-0.18 -0.85 -0.49 21.40
-0.23 -0.84 -0.49 19.20
-0.28 -0.83 -0.48 18.40
-0.33 -0.81 -0.48 20.50
-0.37 -0.80 -0.47 18.60
-0.42 -0.78 -0.47 19.10
-0.46 -0.76 -0.46 19.60
-0.50 -0.74 -0.45 20.60
-0.54 -0.72 -0.44 21.00
-0.57 -0.70 -0.43 19.80
-0.60 -0.67 -0.42 19.40
-0.64 -0.65 -0.42 21.30
-0.66 -0.63 -0.41 17.80
0.66 -0.61 -0.44 19.80
0.63 -0.64 -0.45 19.00
0.60 -0.66 -0.46 18.90
0.56 -0.68 -0.47 20.00
0.53 -0.70 -0.48 18.70
0.49 -0.72 -0.49 20.50
0.45 -0.74 -0.50 20.40
0.41 -0.76 -0.50 21.40
0.37 -0.78 -0.51 19.10
0.32 -0.79 -0.52 19.70
0.28 -0.81 -0.52 20.60
0.23 -0.82 -0.53 18.60
0.18 -0.83 -0.53 19.60
0.13 -0.84 -0.54 18.80
0.08 -0.84 -0.54 19.10
0.03 -0.84 -0.54 20.00
-0.03 -0.84 -0.54 20.80
-0.08 -0.84 -0.54 19.80
-0.13 -0.84 -0.54 19.10
-0.18 -0.83 -0.53 17.40
-0.23 -0.82 -0.53 19.60
-0.28 -0.81 -0.52 18.90
-0.32 -0.79 -0.52 18.20
-0.37 -0.78 -0.51 20.60
-0.41 -0.76 -0.50 18.70
-0.45 -0.74 -0.50 18.20
-0.49 -0.72 -0.49 19.50
-0.53 -0.70 -0.48 18.10
-0.56 -0.68 -0.47 19.40
-0.60 -0.66 -0.46 18.60
-0.63 -0.64 -0.45 18.40
-0.66 -0.61 -0.44 17.40
0.65 -0.60 -0.48 21.90
0.62 -0.62 -0.49 21.00
0.58 -0.64 -0.50 18.90
0.55 -0.66 -0.51 19.00
0.52 -0.68 -0.52 19.40
0.48 -0.70 -0.53 19.00
0.44 -0.72 -0.54 17.80
0.40 -0.74 -0.54 18.60
0.36 -0.75 -0.55 19.60
0.32 -0.77 -0.56 19.40
0.27 -0.78 -0.56 19.40
0.22 -0.79 -0.57 19.20
0.17 -0.80 -0.57 19.80
0.13 -0.81 -0.57 19.20
0.08 -0.81 -0.58 20.20
0.03 -0.81 -0.58 19.60
-0.03 -0.81 -0.58 19.40
-0.08 -0.81 -0.58 19.40
-0.13 -0.81 -0.57 19.40
-0.17 -0.80 -0.57 20.20
-0.22 -0.79 -0.57 19.40
-0.27 -0.78 -0.56 19.70
-0.32 -0.77 -0.56 18.20
-0.36 -0.75 -0.55 18.60
-0.40 -0.74 -0.54 18.90
-0.44 -0.72 -0.54 17.40
-0.48 -0.70 -0.53 18.80
-0.52 -0.68 -0.52 19.10
-0.55 -0.66 -0.51 19.80
-0.58 -0.64 -0.50 18.50
-0.62 -0.62 -0.49 17.80
-0.65 -0.60 -0.48 19.40
0.63 -0.58 -0.51 18.70
0.61 -0.60 -0.52 18.60
0.57 -0.62 -0.53 20.00
0.54 -0.64 -0.54 21.40
0.51 -0.66 -0.55 19.40
0.47 -0.68 -0.56 20.90
0.43 -0.70 -0.57 19.20
0.39 -0.71 -0.58 19.40
0.35 -0.73 -0.59 20.20
0.31 -0.74 -0.59 19.40
0.26 -0.75 -0.60 17.40
0.22 -0.77 -0.60 18.60
0.17 -0.78 -0.61 19.50
0.12 -0.78 -0.61 19.30
0.07 -0.79 -0.61 17.90
0.03 -0.79 -0.62 20.30
-0.03 -0.79 -0.62 19.40
-0.07 -0.79 -0.61 19.50
-0.12 -0.78 -0.61 19.00
-0.17 -0.78 -0.61 20.20
-0.22 -0.77 -0.60 18.50
-0.26 -0.75 -0.60 20.70
-0.31 -0.74 -0.59 19.00
-0.35 -0.73 -0.59 18.90
-0.39 -0.71 -0.58 19.60
-0.43 -0.70 -0.57 19.80
-0.47 -0.68 -0.56 22.30
-0.51 -0.66 -0.55 20.50
-0.54 -0.64 -0.54 20.60
-0.57 -0.62 -0.53 19.00
-0.61 -0.60 -0.52 26.60
-0.63 -0.58 -0.51 26.00
0.62 -0.56 -0.54 20.60
0.60 -0.58 -0.55 19.40
0.56 -0.60 -0.56 18.80
0.53 -0.62 -0.57 20.60
0.50 -0.64 -0.58 19.00
0.46 -0.66 -0.60 20.80
0.42 -0.67 -0.60 17.10
0.39 -0.69 -0.61 18.10
0.35 -0.70 -0.62 19.60
0.30 -0.72 -0.63 19.60
0.26 -0.73 -0.63 19.50
0.21 -0.74 -0.64 22.00
0.17 -0.75 -0.64 19.10
0.12 -0.75 -0.65 15.70
0.07 -0.76 -0.65 19.40
0.02 -0.76 -0.65 20.10
-0.02 -0.76 -0.65 19.40
-0.07 -0.76 -0.65 20.90
-0.12 -0.75 -0.65 20.60
-0.17 -0.75 -0.64 21.50
-0.21 -0.74 -0.64 18.10
-0.26 -0.73 -0.63 21.80
-0.30 -0.72 -0.63 20.00
-0.35 -0.70 -0.62 19.50
-0.39 -0.69 -0.61 18.20
-0.42 -0.67 -0.60 20.50
-0.46 -0.66 -0.60 19.30
-0.50 -0.64 -0.58 20.40
-0.53 -0.62 -0.57 20.20
-0.56 -0.60 -0.56 21.70
-0.60 -0.58 -0.55 18.00
-0.62 -0.56 -0.54 19.50
0.61 -0.55 -0.57 20.50
0.58 -0.56 -0.58 20.70
0.55 -0.58 -0.60 17.50
0.52 -0.60 -0.61 19.10
0.49 -0.62 -0.62 18.00
0.45 -0.64 -0.63 18.80
0.42 -0.65 -0.64 18.20
0.38 -0.67 -0.64 19.50
0.34 -0.68 -0.65 19.20
0.30 -0.69 -0.66 20.40
0.25 -0.70 -0.67 19.40
0.21 -0.71 -0.67 21.40
0.16 -0.72 -0.68 18.50
0.12 -0.72 -0.68 19.70
0.07 -0.73 -0.68 16.20
0.02 -0.73 -0.68 17.90
-0.02 -0.73 -0.68 21.50
-0.07 -0.73 -0.68 20.20
-0.12 -0.72 -0.68 20.00
-0.16 -0.72 -0.68 20.70
-0.21 -0.71 -0.67 18.40
-0.25 -0.70 -0.67 20.30
-0.30 -0.69 -0.66 20.00
-0.34 -0.68 -0.65 22.00
-0.38 -0.67 -0.64 18.70
-0.42 -0.65 -0.64 19.40
-0.45 -0.64 -0.63 18.00
-0.49 -0.62 -0.62 19.80
-0.52 -0.60 -0.61 22.40
-0.55 -0.58 -0.60 23.00
-0.58 -0.56 -0.58 19.60
-0.61 -0.55 -0.57 21.80
0.60 -0.53 -0.60 20.80
0.57 -0.55 -0.61 18.90
0.54 -0.56 -0.62 19.90
0.51 -0.58 -0.63 17.10
0.48 -0.60 -0.65 19.10
0.44 -0.61 -0.66 17.60
0.41 -0.63 -0.66 17.40
0.37 -0.64 -0.67 18.00
0.33 -0.65 -0.68 17.80
0.29 -0.67 -0.69 19.40
0.25 -0.68 -0.70 21.40
0.20 -0.69 -0.70 18.90
0.16 -0.69 -0.70 18.60
0.11 -0.70 -0.71 19.20
0.07 -0.70 -0.71 21.00
0.02 -0.70 -0.71 18.40
-0.02 -0.70 -0.71 21.40
-0.07 -0.70 -0.71 19.50
-0.11 -0.70 -0.71 22.00
-0.16 -0.69 -0.70 21.00
-0.20 -0.69 -0.70 19.20
-0.25 -0.68 -0.70 15.80
-0.29 -0.67 -0.69 20.70
-0.33 -0.65 -0.68 18.60
-0.37 -0.64 -0.67 19.40
-0.41 -0.63 -0.66 18.20
-0.44 -0.61 -0.66 18.60
-0.48 -0.60 -0.65 22.20
-0.51 -0.58 -0.63 17.40
-0.54 -0.56 -0.62 20.90
-0.57 -0.55 -0.61 17.50
-0.60 -0.53 -0.60 20.60
0.53 -0.60 0.60 23.60
0.55 -0.61 0.57 19.40
0.56 -0.62 0.54 21.40
0.58 -0.63 0.51 19.40
0.60 -0.65 0.48 22.60
0.61 -0.66 0.44 21.20
0.63 -0.66 0.41 18.10
0.64 -0.67 0.37 20.30
0.65 -0.68 0.33 21.90
0.67 -0.69 0.29 20.80
0.68 -0.70 0.25 19.80
0.69 -0.70 0.20 19.70
0.69 -0.70 0.16 19.20
0.70 -0.71 0.11 19.10
0.70 -0.71 0.07 19.70
0.70 -0.71 0.02 22.10
0.70 -0.71 -0.02 19.30
0.70 -0.71 -0.07 20.70
0.70 -0.71 -0.11 19.90
0.69 -0.70 -0.16 19.50
0.69 -0.70 -0.20 19.40
0.68 -0.70 -0.25 18.80
0.67 -0.69 -0.29 21.30
0.65 -0.68 -0.33 18.90
0.64 -0.67 -0.37 21.80
0.63 -0.66 -0.41 17.60
0.61 -0.66 -0.44 19.60
0.60 -0.65 -0.48 20.00
0.58 -0.63 -0.51 22.50
0.56 -0.62 -0.54 18.10
0.55 -0.61 -0.57 18.00
0.53 -0.60 -0.60 16.00
0.55 -0.57 0.61 18.10
0.56 -0.58 0.58 19.50
0.58 -0.60 0.55 18.60
0.60 -0.61 0.52 20.00
0.62 -0.62 0.49 21.10
0.64 -0.63 0.45 20.40
0.65 -0.64 0.42 19.60
0.67 -0.64 0.38 21.10
0.68 -0.65 0.34 21.80
0.69 -0.66 0.30 22.30
0.70 -0.67 0.25 19.70
0.71 -0.67 0.21 20.30
0.72 -0.68 0.16 21.40
0.72 -0.68 0.12 20.00
0.73 -0.68 0.07 21.50
0.73 -0.68 0.02 20.60
0.73 -0.68 -0.02 20.10
0.73 -0.68 -0.07 18.20
0.72 -0.68 -0.12 20.70
0.72 -0.68 -0.16 19.10
0.71 -0.67 -0.21 21.60
0.70 -0.67 -0.25 19.60
0.69 -0.66 -0.30 20.60
0.68 -0.65 -0.34 22.20
0.67 -0.64 -0.38 17.70
0.65 -0.64 -0.42 20.60
0.64 -0.63 -0.45 19.30
0.62 -0.62 -0.49 17.70
0.60 -0.61 -0.52 18.40
0.58 -0.60 -0.55 16.40
0.56 -0.58 -0.58 24.30
0.55 -0.57 -0.61 20.40
0.56 -0.54 0.62 19.00
0.58 -0.55 0.60 22.60
0.60 -0.56 0.56 16.00
0.62 -0.57 0.53 20.30
0.64 -0.58 0.50 20.80
0.66 -0.60 0.46 22.10
0.67 -0.60 0.42 23.40
0.69 -0.61 0.39 21.30
0.70 -0.62 0.35 22.00
0.72 -0.63 0.30 19.50
0.73 -0.63 0.26 19.90
0.74 -0.64 0.21 20.70
0.75 -0.64 0.17 22.40
0.75 -0.65 0.12 20.50
0.76 -0.65 0.07 21.10
0.76 -0.65 0.02 20.00
0.76 -0.65 -0.02 19.30
0.76 -0.65 -0.07 19.50
0.75 -0.65 -0.12 21.10
0.75 -0.64 -0.17 20.30
0.74 -0.64 -0.21 20.80
0.73 -0.63 -0.26 20.90
0.72 -0.63 -0.30 19.30
0.70 -0.62 -0.35 19.90
0.69 -0.61 -0.39 19.80
0.67 -0.60 -0.42 20.80
0.66 -0.60 -0.46 18.10
0.64 -0.58 -0.50 20.70
0.62 -0.57 -0.53 21.50
0.60 -0.56 -0.56 21.40
0.58 -0.55 -0.60 18.30
0.56 -0.54 -0.62 23.60
0.58 -0.51 0.63 20.80
0.60 -0.52 0.61 23.30
0.62 -0.53 0.57 24.10
0.64 -0.54 0.54 21.10
0.66 -0.55 0.51 21.30
0.68 -0.56 0.47 21.80
0.70 -0.57 0.43 20.40
0.71 -0.58 0.39 20.40
0.73 -0.59 0.35 21.00
0.74 -0.59 0.31 20.20
0.75 -0.60 0.26 21.70
0.77 -0.60 0.22 22.10
0.78 -0.61 0.17 20.00
0.78 -0.61 0.12 20.50
0.79 -0.61 0.07 20.40
0.79 -0.62 0.03 20.10
0.79 -0.62 -0.03 19.50
0.79 -0.61 -0.07 21.50
0.78 -0.61 -0.12 21.80
0.78 -0.61 -0.17 21.30
0.77 -0.60 -0.22 21.10
0.75 -0.60 -0.26 20.90
0.74 -0.59 -0.31 21.90
0.73 -0.59 -0.35 20.00
0.71 -0.58 -0.39 18.60
0.70 -0.57 -0.43 18.90
0.68 -0.56 -0.47 23.20
0.66 -0.55 -0.51 21.60
0.64 -0.54 -0.54 20.30
0.62 -0.53 -0.57 23.80
0.60 -0.52 -0.61 27.20
0.58 -0.51 -0.63 27.70
0.60 -0.48 0.65 22.40
0.62 -0.49 0.62 20.30
0.64 -0.50 0.58 18.90
0.66 -0.51 0.55 20.30
0.68 -0.52 0.52 18.90
0.70 -0.53 0.48 20.20
0.72 -0.54 0.44 21.30
0.74 -0.54 0.40 20.70
0.75 -0.55 0.36 21.80
0.77 -0.56 0.32 20.50
0.78 -0.56 0.27 20.70
0.79 -0.57 0.22 20.80
0.80 -0.57 0.17 20.90
0.81 -0.57 0.13 20.30
0.81 -0.58 0.08 18.60
0.81 -0.58 0.03 20.50
0.81 -0.58 -0.03 20.00
0.81 -0.58 -0.08 20.60
0.81 -0.57 -0.13 19.60
0.80 -0.57 -0.17 19.60
0.79 -0.57 -0.22 20.60
0.78 -0.56 -0.27 20.00
0.77 -0.56 -0.32 21.10
0.75 -0.55 -0.36 18.60
0.74 -0.54 -0.40 19.90
0.72 -0.54 -0.44 20.30
0.70 -0.53 -0.48 19.20
0.68 -0.52 -0.52 19.50
0.66 -0.51 -0.55 22.10
0.64 -0.50 -0.58 18.60
0.62 -0.49 -0.62 21.80
0.60 -0.48 -0.65 19.90
0.61 -0.44 0.66 20.70
0.64 -0.45 0.63 21.10
0.66 -0.46 0.60 19.90
0.68 -0.47 0.56 21.90
0.70 -0.48 0.53 20.30
0.72 -0.49 0.49 21.80
0.74 -0.50 0.45 23.10
0.76 -0.50 0.41 22.10
0.78 -0.51 0.37 21.50
0.79 -0.52 0.32 21.80
0.81 -0.52 0.28 20.60
0.82 -0.53 0.23 21.30
0.83 -0.53 0.18 21.10
0.84 -0.54 0.13 18.90
0.84 -0.54 0.08 19.80
0.84 -0.54 0.03 20.90
0.84 -0.54 -0.03 20.20
0.84 -0.54 -0.08 19.90
0.84 -0.54 -0.13 20.70
0.83 -0.53 -0.18 20.70
0.82 -0.53 -0.23 20.10
0.81 -0.52 -0.28 20.70
0.79 -0.52 -0.32 19.40
0.78 -0.51 -0.37 20.90
0.76 -0.50 -0.41 19.30
0.74 -0.50 -0.45 20.70
0.72 -0.49 -0.49 19.10
0.70 -0.48 -0.53 20.60
0.68 -0.47 -0.56 20.80
0.66 -0.46 -0.60 18.10
0.64 -0.45 -0.63 21.10
0.61 -0.44 -0.66 18.60
0.63 -0.41 0.66 20.30
0.65 -0.42 0.64 20.00
0.67 -0.42 0.60 18.60
0.70 -0.43 0.57 22.60
0.72 -0.44 0.54 21.90
0.74 -0.45 0.50 22.20
0.76 -0.46 0.46 22.80
0.78 -0.47 0.42 21.50
0.80 -0.47 0.37 20.70
0.81 -0.48 0.33 20.70
0.83 -0.48 0.28 20.70
0.84 -0.49 0.23 21.20
0.85 -0.49 0.18 20.60
0.86 -0.49 0.13 21.70
0.86 -0.50 0.08 19.70
0.87 -0.50 0.03 20.20
0.87 -0.50 -0.03 19.40
0.86 -0.50 -0.08 20.70
0.86 -0.49 -0.13 20.20
0.85 -0.49 -0.18 18.60
0.84 -0.49 -0.23 19.60
0.83 -0.48 -0.28 19.60
0.81 -0.48 -0.33 20.20
0.80 -0.47 -0.37 18.40
0.78 -0.47 -0.42 19.30
0.76 -0.46 -0.46 19.10
0.74 -0.45 -0.50 22.10
0.72 -0.44 -0.54 19.60
0.70 -0.43 -0.57 20.30
0.67 -0.42 -0.60 20.60
0.65 -0.42 -0.64 23.10
0.63 -0.41 -0.66 18.70
0.64 -0.37 0.67 19.00
0.67 -0.38 0.64 18.30
0.69 -0.39 0.61 21.80
0.71 -0.39 0.58 19.70
0.74 -0.40 0.54 20.60
0.76 -0.41 0.50 22.10
0.78 -0.42 0.47 20.50
0.80 -0.42 0.42 20.50
0.82 -0.43 0.38 21.50
0.84 -0.44 0.33 19.90
0.85 -0.44 0.28 21.40
0.86 -0.44 0.23 21.10
0.88 -0.45 0.18 20.30
0.88 -0.45 0.13 19.40
0.89 -0.45 0.08 19.70
0.89 -0.45 0.03 20.30
0.89 -0.45 -0.03 21.10
0.89 -0.45 -0.08 21.10
0.88 -0.45 -0.13 20.80
0.88 -0.45 -0.18 20.30
0.86 -0.44 -0.23 20.60
0.85 -0.44 -0.28 21.10
0.84 -0.44 -0.33 20.10
0.82 -0.43 -0.38 20.60
0.80 -0.42 -0.42 19.20
0.78 -0.42 -0.47 20.30
0.76 -0.41 -0.50 21.50
0.74 -0.40 -0.54 20.00
0.71 -0.39 -0.58 20.90
0.69 -0.39 -0.61 20.20
0.67 -0.38 -0.64 26.30
0.64 -0.37 -0.67 26.00
0.65 -0.33 0.68 18.50
0.68 -0.34 0.65 19.60
0.70 -0.35 0.62 19.00
0.73 -0.35 0.59 20.90
0.75 -0.36 0.55 20.90
0.78 -0.37 0.51 21.20
0.80 -0.37 0.47 19.60
0.82 -0.38 0.43 20.00
0.84 -0.38 0.38 22.10
0.86 -0.39 0.34 19.30
0.87 -0.39 0.29 19.70
0.89 -0.40 0.24 19.10
0.90 -0.40 0.19 20.10
0.90 -0.40 0.13 19.60
0.91 -0.41 0.08 20.40
0.91 -0.41 0.03 21.10
0.91 -0.41 -0.03 20.00
0.91 -0.41 -0.08 21.30
0.90 -0.40 -0.13 19.70
0.90 -0.40 -0.19 20.00
0.89 -0.40 -0.24 21.10
0.87 -0.39 -0.29 20.10
0.86 -0.39 -0.34 21.60
0.84 -0.38 -0.38 19.70
0.82 -0.38 -0.43 20.60
0.80 -0.37 -0.47 19.50
0.78 -0.37 -0.51 21.10
0.75 -0.36 -0.55 19.50
0.73 -0.35 -0.59 20.70
0.70 -0.35 -0.62 20.10
0.68 -0.34 -0.65 19.30
0.65 -0.33 -0.68 21.30
0.67 -0.29 0.69 16.80
0.69 -0.30 0.66 17.30
0.72 -0.30 0.63 17.80
0.74 -0.31 0.59 20.20
0.77 -0.32 0.56 21.00
0.79 -0.32 0.52 21.40
0.81 -0.33 0.48 21.70
0.84 -0.33 0.44 20.30
0.86 -0.34 0.39 21.40
0.88 -0.34 0.34 20.90
0.89 -0.35 0.29 20.90
0.90 -0.35 0.24 19.90
0.92 -0.35 0.19 21.60
0.93 -0.35 0.14 19.30
0.93 -0.35 0.08 21.40
0.93 -0.36 0.03 21.90
0.93 -0.36 -0.03 20.50
0.93 -0.35 -0.08 20.00
0.93 -0.35 -0.14 22.00
0.92 -0.35 -0.19 21.50
0.90 -0.35 -0.24 21.30
0.89 -0.35 -0.29 21.80
0.88 -0.34 -0.34 21.80
0.86 -0.34 -0.39 21.90
0.84 -0.33 -0.44 20.60
0.81 -0.33 -0.48 19.30
0.79 -0.32 -0.52 20.70
0.77 -0.32 -0.56 19.80
0.74 -0.31 -0.59 19.90
0.72 -0.30 -0.63 18.90
0.69 -0.30 -0.66 21.60
0.67 -0.29 -0.69 21.10
0.68 -0.25 0.70 20.00
0.70 -0.25 0.67 17.60
0.73 -0.26 0.63 17.90
0.75 -0.26 0.60 21.10
0.78 -0.27 0.56 21.90
0.81 -0.28 0.52 23.60
0.83 -0.28 0.48 22.00
0.85 -0.28 0.44 21.60
0.87 -0.29 0.39 22.10
0.89 -0.29 0.35 21.30
0.91 -0.30 0.30 19.60
0.92 -0.30 0.25 20.90
0.93 -0.30 0.19 19.60
0.94 -0.30 0.14 19.90
0.95 -0.30 0.08 19.70
0.95 -0.31 0.03 19.40
0.95 -0.31 -0.03 20.70
0.95 -0.30 -0.08 20.90
0.94 -0.30 -0.14 20.30
0.93 -0.30 -0.19 21.10
0.92 -0.30 -0.25 19.90
0.91 -0.30 -0.30 21.60
0.89 -0.29 -0.35 20.10
0.87 -0.29 -0.39 19.20
0.85 -0.28 -0.44 19.60
0.83 -0.28 -0.48 20.50
0.81 -0.28 -0.52 20.30
0.78 -0.27 -0.56 18.50
0.75 -0.26 -0.60 19.40
0.73 -0.26 -0.63 20.00
0.70 -0.25 -0.67 20.30
0.68 -0.25 -0.70 22.40
0.69 -0.20 0.70 19.10
0.71 -0.21 0.67 18.90
0.74 -0.21 0.64 19.30
0.77 -0.22 0.60 20.40
0.79 -0.22 0.57 21.40
0.82 -0.23 0.53 21.30
0.84 -0.23 0.49 20.70
0.86 -0.23 0.44 21.40
0.89 -0.24 0.40 20.70
0.90 -0.24 0.35 20.00
0.92 -0.25 0.30 20.50
0.94 -0.25 0.25 20.90
0.95 -0.25 0.19 20.10
0.96 -0.25 0.14 19.60
0.96 -0.25 0.08 20.30
0.97 -0.25 0.03 21.40
0.97 -0.25 -0.03 21.20
0.96 -0.25 -0.08 20.80
0.96 -0.25 -0.14 22.10
0.95 -0.25 -0.19 20.90
0.94 -0.25 -0.25 21.00
0.92 -0.25 -0.30 20.70
0.90 -0.24 -0.35 20.90
0.89 -0.24 -0.40 20.60
0.86 -0.23 -0.44 20.00
0.84 -0.23 -0.49 19.30
0.82 -0.23 -0.53 20.90
0.79 -0.22 -0.57 20.30
0.77 -0.22 -0.60 19.60
0.74 -0.21 -0.64 19.20
0.71 -0.21 -0.67 25.50
0.69 -0.20 -0.70 25.90
0.69 -0.16 0.70 17.70
0.72 -0.16 0.68 18.30
0.75 -0.17 0.64 15.70
0.78 -0.17 0.61 20.40
0.80 -0.17 0.57 21.10
0.83 -0.18 0.53 20.80
0.85 -0.18 0.49 21.50
0.88 -0.18 0.45 18.70
0.90 -0.19 0.40 20.30
0.92 -0.19 0.35 20.20
0.93 -0.19 0.30 20.40
0.95 -0.19 0.25 20.80
0.96 -0.20 0.20 20.20
0.97 -0.20 0.14 18.80
0.98 -0.20 0.09 19.40
0.98 -0.20 0.03 20.90
0.98 -0.20 -0.03 19.80
0.98 -0.20 -0.09 20.50
0.97 -0.20 -0.14 20.70
0.96 -0.20 -0.20 20.30
0.95 -0.19 -0.25 20.80
0.93 -0.19 -0.30 20.40
0.92 -0.19 -0.35 21.40
0.90 -0.19 -0.40 20.30
0.88 -0.18 -0.45 20.90
0.85 -0.18 -0.49 20.30
0.83 -0.18 -0.53 20.80
0.80 -0.17 -0.57 21.70
0.78 -0.17 -0.61 20.70
0.75 -0.17 -0.64 18.60
0.72 -0.16 -0.68 20.70
0.69 -0.16 -0.70 20.00
0.70 -0.11 0.71 17.30
0.72 -0.12 0.68 16.80
0.75 -0.12 0.65 18.60
0.78 -0.12 0.61 20.00
0.81 -0.13 0.57 19.60
0.84 -0.13 0.54 21.50
0.86 -0.13 0.49 21.60
0.88 -0.13 0.45 20.80
0.90 -0.13 0.40 21.10
0.93 -0.14 0.35 21.90
0.94 -0.14 0.30 20.00
0.96 -0.14 0.25 20.60
0.97 -0.14 0.20 20.00
0.98 -0.14 0.14 19.60
0.99 -0.14 0.09 20.30
0.99 -0.14 0.03 21.70
0.99 -0.14 -0.03 19.30
0.99 -0.14 -0.09 19.30
0.98 -0.14 -0.14 21.50
0.97 -0.14 -0.20 19.80
0.96 -0.14 -0.25 20.40
0.94 -0.14 -0.30 19.80
0.93 -0.14 -0.35 19.60
0.90 -0.13 -0.40 20.60
0.88 -0.13 -0.45 19.70
0.86 -0.13 -0.49 19.60
0.84 -0.13 -0.54 19.30
0.81 -0.13 -0.57 20.50
0.78 -0.12 -0.61 19.60
0.75 -0.12 -0.65 20.20
0.72 -0.12 -0.68 20.00
0.70 -0.11 -0.71 18.80
0.70 -0.07 0.71 16.40
0.73 -0.07 0.68 18.50
0.76 -0.07 0.65 17.40
0.79 -0.07 0.61 19.90
0.81 -0.08 0.58 21.40
0.84 -0.08 0.54 21.30
0.86 -0.08 0.50 21.00
0.89 -0.08 0.45 20.00
0.91 -0.08 0.41 21.00
0.93 -0.08 0.35 18.10
0.95 -0.08 0.30 19.90
0.96 -0.08 0.25 19.40
0.98 -0.09 0.20 20.70
0.99 -0.09 0.14 20.30
0.99 -0.09 0.09 20.60
1.00 -0.09 0.03 18.80
1.00 -0.09 -0.03 19.30
0.99 -0.09 -0.09 19.20
0.99 -0.09 -0.14 18.10
0.98 -0.09 -0.20 20.10
0.96 -0.08 -0.25 19.90
0.95 -0.08 -0.30 19.20
0.93 -0.08 -0.35 20.10
0.91 -0.08 -0.41 20.10
0.89 -0.08 -0.45 19.30
0.86 -0.08 -0.50 21.20
0.84 -0.08 -0.54 20.70
0.81 -0.08 -0.58 20.30
0.79 -0.07 -0.61 18.90
0.76 -0.07 -0.65 20.40
0.73 -0.07 -0.68 20.30
0.70 -0.07 -0.71 21.20
0.70 -0.02 0.71 19.40
0.73 -0.02 0.68 18.60
0.76 -0.02 0.65 18.50
0.79 -0.03 0.62 20.00
0.81 -0.03 0.58 20.70
0.84 -0.03 0.54 21.10
0.87 -0.03 0.50 20.30
0.89 -0.03 0.45 19.10
0.91 -0.03 0.41 19.80
0.93 -0.03 0.36 21.10
0.95 -0.03 0.31 19.80
0.97 -0.03 0.25 18.80
0.98 -0.03 0.20 19.30
0.99 -0.03 0.14 19.90
1.00 -0.03 0.09 20.00
1.00 -0.03 0.03 20.30
1.00 -0.03 -0.03 19.20
1.00 -0.03 -0.09 18.90
0.99 -0.03 -0.14 19.70
0.98 -0.03 -0.20 19.60
0.97 -0.03 -0.25 20.00
0.95 -0.03 -0.31 19.50
0.93 -0.03 -0.36 20.00
0.91 -0.03 -0.41 19.90
0.89 -0.03 -0.45 18.90
0.87 -0.03 -0.50 19.80
0.84 -0.03 -0.54 21.10
0.81 -0.03 -0.58 20.80
0.79 -0.03 -0.62 20.10
0.76 -0.02 -0.65 19.80
0.73 -0.02 -0.68 25.50
0.70 -0.02 -0.71 25.50
0.70 0.02 0.71 17.50
0.73 0.02 0.68 18.60
0.76 0.02 0.65 19.30
0.79 0.03 0.62 20.80
0.81 0.03 0.58 20.70
0.84 0.03 0.54 19.80
0.87 0.03 0.50 19.60
0.89 0.03 0.45 20.10
0.91 0.03 0.41 20.10
0.93 0.03 0.36 20.30
0.95 0.03 0.31 18.90
0.97 0.03 0.25 19.90
0.98 0.03 0.20 20.10
0.99 0.03 0.14 19.30
1.00 0.03 0.09 18.70
1.00 0.03 0.03 20.80
1.00 0.03 -0.03 18.70
1.00 0.03 -0.09 21.40
0.99 0.03 -0.14 20.30
0.98 0.03 -0.20 20.50
0.97 0.03 -0.25 20.70
0.95 0.03 -0.31 19.70
0.93 0.03 -0.36 19.00
0.91 0.03 -0.41 19.10
0.89 0.03 -0.45 19.30
0.87 0.03 -0.50 19.50
0.84 0.03 -0.54 19.80
0.81 0.03 -0.58 19.60
0.79 0.03 -0.62 19.80
0.76 0.02 -0.65 20.20
0.73 0.02 -0.68 26.60
0.70 0.02 -0.71 26.00
0.70 0.07 0.71 17.70
0.73 0.07 0.68 18.10
0.76 0.07 0.65 17.90
0.79 0.07 0.61 20.10
0.81 0.08 0.58 20.10
0.84 0.08 0.54 20.00
0.86 0.08 0.50 20.40
0.89 0.08 0.45 19.90
0.91 0.08 0.41 19.30
0.93 0.08 0.35 20.80
0.95 0.08 0.30 19.80
0.96 0.08 0.25 20.40
0.98 0.09 0.20 20.30
0.99 0.09 0.14 20.30
0.99 0.09 0.09 20.60
1.00 0.09 0.03 19.00
1.00 0.09 -0.03 20.70
0.99 0.09 -0.09 19.20
0.99 0.09 -0.14 19.30
0.98 0.09 -0.20 20.10
0.96 0.08 -0.25 20.70
0.95 0.08 -0.30 19.60
0.93 0.08 -0.35 20.00
0.91 0.08 -0.41 19.50
0.89 0.08 -0.45 19.90
0.86 0.08 -0.50 21.30
0.84 0.08 -0.54 20.00
0.81 0.08 -0.58 19.40
0.79 0.07 -0.61 19.80
0.76 0.07 -0.65 19.70
0.73 0.07 -0.68 18.70
0.70 0.07 -0.71 21.30
0.70 0.11 0.71 20.50
0.72 0.12 0.68 16.90
0.75 0.12 0.65 18.00
0.78 0.12 0.61 20.80
0.81 0.13 0.57 20.60
0.84 0.13 0.54 20.60
0.86 0.13 0.49 20.50
0.88 0.13 0.45 20.30
0.90 0.13 0.40 21.20
0.93 0.14 0.35 20.30
0.94 0.14 0.30 21.80
0.96 0.14 0.25 19.60
0.97 0.14 0.20 19.90
0.98 0.14 0.14 20.30
0.99 0.14 0.09 20.20
0.99 0.14 0.03 20.70
0.99 0.14 -0.03 19.90
0.99 0.14 -0.09 18.90
0.98 0.14 -0.14 20.00
0.97 0.14 -0.20 18.50
0.96 0.14 -0.25 20.10
0.94 0.14 -0.30 21.40
0.93 0.14 -0.35 19.30
0.90 0.13 -0.40 20.20
0.88 0.13 -0.45 20.60
0.86 0.13 -0.49 19.10
0.84 0.13 -0.54 21.30
0.81 0.13 -0.57 20.30
0.78 0.12 -0.61 19.70
0.75 0.12 -0.65 19.30
0.72 0.12 -0.68 19.80
0.70 0.11 -0.71 23.20
0.69 0.16 0.70 16.40
0.72 0.16 0.68 18.10
0.75 0.17 0.64 20.20
0.78 0.17 0.61 20.60
0.80 0.17 0.57 21.40
0.83 0.18 0.53 21.90
0.85 0.18 0.49 21.30
0.88 0.18 0.45 19.90
0.90 0.19 0.40 19.90
0.92 0.19 0.35 20.30
0.93 0.19 0.30 21.00
0.95 0.19 0.25 20.40
0.96 0.20 0.20 20.20
0.97 0.20 0.14 20.70
0.98 0.20 0.09 18.90
0.98 0.20 0.03 20.20
0.98 0.20 -0.03 21.00
0.98 0.20 -0.09 20.30
0.97 0.20 -0.14 20.60
0.96 0.20 -0.20 19.90
0.95 0.19 -0.25 19.80
0.93 0.19 -0.30 18.80
0.92 0.19 -0.35 20.00
0.90 0.19 -0.40 18.90
0.88 0.18 -0.45 19.80
0.85 0.18 -0.49 21.40
0.83 0.18 -0.53 21.10
0.80 0.17 -0.57 19.30
0.78 0.17 -0.61 21.60
0.75 0.17 -0.64 20.00
0.72 0.16 -0.68 18.20
0.69 0.16 -0.70 20.30
0.69 0.20 0.70 16.00
0.71 0.21 0.67 17.00
0.74 0.21 0.64 19.00
0.77 0.22 0.60 20.70
0.79 0.22 0.57 21.10
0.82 0.23 0.53 21.50
0.84 0.23 0.49 20.70
0.86 0.23 0.44 20.60
0.89 0.24 0.40 21.10
0.90 0.24 0.35 21.10
0.92 0.25 0.30 20.70
0.94 0.25 0.25 20.00
0.95 0.25 0.19 20.30
0.96 0.25 0.14 19.30
0.96 0.25 0.08 19.60
0.97 0.25 0.03 20.00
0.97 0.25 -0.03 19.80
0.96 0.25 -0.08 20.50
0.96 0.25 -0.14 20.70
0.95 0.25 -0.19 20.40
0.94 0.25 -0.25 18.80
0.92 0.25 -0.30 20.20
0.90 0.24 -0.35 20.30
0.89 0.24 -0.40 19.60
0.86 0.23 -0.44 18.80
0.84 0.23 -0.49 19.60
0.82 0.23 -0.53 19.90
0.79 0.22 -0.57 18.20
0.77 0.22 -0.60 19.40
0.74 0.21 -0.64 20.70
0.71 0.21 -0.67 26.60
0.69 0.20 -0.70 26.30
0.68 0.25 0.70 19.10
0.70 0.25 0.67 20.60
0.73 0.26 0.63 18.60
0.75 0.26 0.60 20.00
0.78 0.27 0.56 20.60
0.81 0.28 0.52 20.80
0.83 0.28 0.48 21.80
0.85 0.28 0.44 20.70
0.87 0.29 0.39 19.80
0.89 0.29 0.35 20.50
0.91 0.30 0.30 20.60
0.92 0.30 0.25 21.40
0.93 0.30 0.19 21.10
0.94 0.30 0.14 19.60
0.95 0.30 0.08 20.80
0.95 0.31 0.03 20.30
0.95 0.31 -0.03 21.70
0.95 0.30 -0.08 21.10
0.94 0.30 -0.14 21.50
0.93 0.30 -0.19 20.50
0.92 0.30 -0.25 22.00
0.91 0.30 -0.30 20.10
0.89 0.29 -0.35 21.20
0.87 0.29 -0.39 20.80
0.85 0.28 -0.44 20.70
0.83 0.28 -0.48 22.00
0.81 0.28 -0.52 20.40
0.78 0.27 -0.56 19.40
0.75 0.26 -0.60 19.30
0.73 0.26 -0.63 20.00
0.70 0.25 -0.67 19.50
0.68 0.25 -0.70 19.60
0.67 0.29 0.69 17.70
0.69 0.30 0.66 18.60
0.72 0.30 0.63 19.60
0.74 0.31 0.59 19.50
0.77 0.32 0.56 21.10
0.79 0.32 0.52 20.30
0.81 0.33 0.48 21.50
0.84 0.33 0.44 21.50
0.86 0.34 0.39 21.10
0.88 0.34 0.34 21.10
0.89 0.35 0.29 21.90
0.90 0.35 0.24 19.70
0.92 0.35 0.19 19.70
0.93 0.35 0.14 19.20
0.93 0.35 0.08 20.30
0.93 0.36 0.03 21.20
0.93 0.36 -0.03 21.30
0.93 0.35 -0.08 20.60
0.93 0.35 -0.14 22.20
0.92 0.35 -0.19 21.30
0.90 0.35 -0.24 21.10
0.89 0.35 -0.29 21.80
0.88 0.34 -0.34 21.30
0.86 0.34 -0.39 21.00
0.84 0.33 -0.44 19.80
0.81 0.33 -0.48 19.30
0.79 0.32 -0.52 21.40
0.77 0.32 -0.56 19.10
0.74 0.31 -0.59 19.30
0.72 0.30 -0.63 20.40
0.69 0.30 -0.66 22.10
0.67 0.29 -0.69 18.90
0.65 0.33 0.68 19.40
0.68 0.34 0.65 19.60
0.70 0.35 0.62 21.30
0.73 0.35 0.59 20.90
0.75 0.36 0.55 19.60
0.78 0.37 0.51 21.40
0.80 0.37 0.47 22.40
0.82 0.38 0.43 21.10
0.84 0.38 0.38 21.00
0.86 0.39 0.34 20.20
0.87 0.39 0.29 20.30
0.89 0.40 0.24 20.30
0.90 0.40 0.19 20.10
0.90 0.40 0.13 21.40
0.91 0.41 0.08 20.10
0.91 0.41 0.03 20.70
0.91 0.41 -0.03 20.70
0.91 0.41 -0.08 21.60
0.90 0.40 -0.13 21.10
0.90 0.40 -0.19 20.80
0.89 0.40 -0.24 20.30
0.87 0.39 -0.29 22.10
0.86 0.39 -0.34 19.70
0.84 0.38 -0.38 19.60
0.82 0.38 -0.43 20.90
0.80 0.37 -0.47 19.20
0.78 0.37 -0.51 20.40
0.75 0.36 -0.55 21.00
0.73 0.35 -0.59 18.30
0.70 0.35 -0.62 18.90
0.68 0.34 -0.65 18.90
0.65 0.33 -0.68 22.40
0.64 0.37 0.67 18.30
0.67 0.38 0.64 18.10
0.69 0.39 0.61 19.50
0.71 0.39 0.58 22.20
0.74 0.40 0.54 21.30
0.76 0.41 0.50 22.10
0.78 0.42 0.47 22.80
0.80 0.42 0.42 21.70
0.82 0.43 0.38 22.30
0.84 0.44 0.33 21.60
0.85 0.44 0.28 20.30
0.86 0.44 0.23 20.50
0.88 0.45 0.18 21.10
0.88 0.45 0.13 18.30
0.89 0.45 0.08 19.60
0.89 0.45 0.03 20.30
0.89 0.45 -0.03 19.50
0.89 0.45 -0.08 22.10
0.88 0.45 -0.13 22.70
0.88 0.45 -0.18 21.40
0.86 0.44 -0.23 21.30
0.85 0.44 -0.28 20.60
0.84 0.44 -0.33 20.50
0.82 0.43 -0.38 20.00
0.80 0.42 -0.42 19.00
0.78 0.42 -0.47 20.30
0.76 0.41 -0.50 19.60
0.74 0.40 -0.54 19.10
0.71 0.39 -0.58 19.10
0.69 0.39 -0.61 20.50
0.67 0.38 -0.64 27.80
0.64 0.37 -0.67 27.10
0.63 0.41 0.66 19.30
0.65 0.42 0.64 20.50
0.67 0.42 0.60 19.00
0.70 0.43 0.57 21.60
0.72 0.44 0.54 20.00
0.74 0.45 0.50 22.40
0.76 0.46 0.46 21.10
0.78 0.47 0.42 21.60
0.80 0.47 0.37 20.80
0.81 0.48 0.33 20.20
0.83 0.48 0.28 19.10
0.84 0.49 0.23 20.40
0.85 0.49 0.18 20.30
0.86 0.49 0.13 19.10
0.86 0.50 0.08 20.30
0.87 0.50 0.03 19.00
0.87 0.50 -0.03 21.50
0.86 0.50 -0.08 20.70
0.86 0.49 -0.13 20.80
0.85 0.49 -0.18 19.70
0.84 0.49 -0.23 20.30
0.83 0.48 -0.28 21.80
0.81 0.48 -0.33 21.00
0.80 0.47 -0.37 18.90
0.78 0.47 -0.42 19.60
0.76 0.46 -0.46 22.20
0.74 0.45 -0.50 20.00
0.72 0.44 -0.54 19.40
0.70 0.43 -0.57 22.10
0.67 0.42 -0.60 21.10
0.65 0.42 -0.64 21.10
0.63 0.41 -0.66 19.50
0.61 0.44 0.66 23.30
0.64 0.45 0.63 21.90
0.66 0.46 0.60 20.60
0.68 0.47 0.56 20.40
0.70 0.48 0.53 20.50
0.72 0.49 0.49 21.00
0.74 0.50 0.45 20.80
0.76 0.50 0.41 20.70
0.78 0.51 0.37 20.90
0.79 0.52 0.32 20.30
0.81 0.52 0.28 21.40
0.82 0.53 0.23 18.90
0.83 0.53 0.18 19.30
0.84 0.54 0.13 19.90
0.84 0.54 0.08 20.00
0.84 0.54 0.03 20.70
0.84 0.54 -0.03 20.30
0.84 0.54 -0.08 19.70
0.84 0.54 -0.13 19.40
0.83 0.53 -0.18 20.00
0.82 0.53 -0.23 20.00
0.81 0.52 -0.28 20.30
0.79 0.52 -0.32 22.30
0.78 0.51 -0.37 21.40
0.76 0.50 -0.41 19.30
0.74 0.50 -0.45 21.20
0.72 0.49 -0.49 20.50
0.70 0.48 -0.53 18.70
0.68 0.47 -0.56 16.40
0.66 0.46 -0.60 22.10
0.64 0.45 -0.63 20.90
0.61 0.44 -0.66 20.00
0.60 0.48 0.65 21.50
0.62 0.49 0.62 20.00
0.64 0.50 0.58 21.10
0.66 0.51 0.55 21.60
0.68 0.52 0.52 20.80
0.70 0.53 0.48 21.60
0.72 0.54 0.44 21.90
0.74 0.54 0.40 20.20
0.75 0.55 0.36 20.40
0.77 0.56 0.32 19.60
0.78 0.56 0.27 19.30
0.79 0.57 0.22 21.10
0.80 0.57 0.17 20.70
0.81 0.57 0.13 18.90
0.81 0.58 0.08 19.60
0.81 0.58 0.03 19.60
0.81 0.58 -0.03 20.00
0.81 0.58 -0.08 19.70
0.81 0.57 -0.13 20.10
0.80 0.57 -0.17 21.00
0.79 0.57 -0.22 19.60
0.78 0.56 -0.27 20.30
0.77 0.56 -0.32 20.00
0.75 0.55 -0.36 20.30
0.74 0.54 -0.40 20.80
0.72 0.54 -0.44 20.30
0.70 0.53 -0.48 17.00
0.68 0.52 -0.52 20.50
0.66 0.51 -0.55 18.90
0.64 0.50 -0.58 18.90
0.62 0.49 -0.62 15.90
0.60 0.48 -0.65 18.60
0.58 0.51 0.63 19.90
0.60 0.52 0.61 17.50
0.62 0.53 0.57 22.00
0.64 0.54 0.54 19.70
0.66 0.55 0.51 20.70
0.68 0.56 0.47 20.70
0.70 0.57 0.43 21.50
0.71 0.58 0.39 21.50
0.73 0.59 0.35 22.50
0.74 0.59 0.31 20.90
0.75 0.60 0.26 22.80
0.77 0.60 0.22 20.60
0.78 0.61 0.17 19.80
0.78 0.61 0.12 19.60
0.79 0.61 0.07 17.70
0.79 0.62 0.03 20.10
0.79 0.62 -0.03 19.50
0.79 0.61 -0.07 20.50
0.78 0.61 -0.12 20.70
0.78 0.61 -0.17 20.30
0.77 0.60 -0.22 20.20
0.75 0.60 -0.26 19.30
0.74 0.59 -0.31 20.70
0.73 0.59 -0.35 19.70
0.71 0.58 -0.39 18.30
0.70 0.57 -0.43 19.30
0.68 0.56 -0.47 19.60
0.66 0.55 -0.51 19.00
0.64 0.54 -0.54 21.00
0.62 0.53 -0.57 19.30
0.60 0.52 -0.61 29.30
0.58 0.51 -0.63 28.10
0.56 0.54 0.62 20.70
0.58 0.55 0.60 22.00
0.60 0.56 0.56 23.00
0.62 0.57 0.53 21.80
0.64 0.58 0.50 23.10
0.66 0.60 0.46 19.30
0.67 0.60 0.42 20.70
0.69 0.61 0.39 23.40
0.70 0.62 0.35 20.60
0.72 0.63 0.30 19.40
0.73 0.63 0.26 18.60
0.74 0.64 0.21 20.90
0.75 0.64 0.17 19.60
0.75 0.65 0.12 19.40
0.76 0.65 0.07 19.60
0.76 0.65 0.02 20.90
0.76 0.65 -0.02 21.50
0.76 0.65 -0.07 19.60
0.75 0.65 -0.12 21.10
0.75 0.64 -0.17 21.80
0.74 0.64 -0.21 21.50
0.73 0.63 -0.26 21.40
0.72 0.63 -0.30 21.10
0.70 0.62 -0.35 20.00
0.69 0.61 -0.39 19.60
0.67 0.60 -0.42 20.40
0.66 0.60 -0.46 20.80
0.64 0.58 -0.50 19.40
0.62 0.57 -0.53 19.40
0.60 0.56 -0.56 20.60
0.58 0.55 -0.60 19.30
0.56 0.54 -0.62 22.80
0.55 0.57 0.61 22.40
0.56 0.58 0.58 21.80
0.58 0.60 0.55 19.40
0.60 0.61 0.52 22.10
0.62 0.62 0.49 20.40
0.64 0.63 0.45 20.80
0.65 0.64 0.42 22.60
0.67 0.64 0.38 22.00
0.68 0.65 0.34 20.80
0.69 0.66 0.30 18.60
0.70 0.67 0.25 21.60
0.71 0.67 0.21 18.40
0.72 0.68 0.16 17.30
0.72 0.68 0.12 19.50
0.73 0.68 0.07 20.30
0.73 0.68 0.02 19.80
0.73 0.68 -0.02 19.00
0.73 0.68 -0.07 21.80
0.72 0.68 -0.12 22.20
0.72 0.68 -0.16 20.10
0.71 0.67 -0.21 20.30
0.70 0.67 -0.25 21.40
0.69 0.66 -0.30 20.70
0.68 0.65 -0.34 21.60
0.67 0.64 -0.38 18.60
0.65 0.64 -0.42 20.70
0.64 0.63 -0.45 21.50
0.62 0.62 -0.49 20.40
0.60 0.61 -0.52 19.30
0.58 0.60 -0.55 20.00
0.56 0.58 -0.58 23.20
0.55 0.57 -0.61 20.30
0.53 0.60 0.60 22.70
0.55 0.61 0.57 19.00
0.56 0.62 0.54 22.10
0.58 0.63 0.51 19.60
0.60 0.65 0.48 19.00
0.61 0.66 0.44 24.80
0.63 0.66 0.41 19.70
0.64 0.67 0.37 21.80
0.65 0.68 0.33 21.10
0.67 0.69 0.29 19.50
0.68 0.70 0.25 21.40
0.69 0.70 0.20 21.00
0.69 0.70 0.16 20.40
0.70 0.71 0.11 21.70
0.70 0.71 0.07 19.30
0.70 0.71 0.02 19.70
0.70 0.71 -0.02 20.70
0.70 0.71 -0.07 20.90
0.70 0.71 -0.11 21.90
0.69 0.70 -0.16 21.10
0.69 0.70 -0.20 16.40
0.68 0.70 -0.25 20.10
0.67 0.69 -0.29 18.40
0.65 0.68 -0.33 21.40
0.64 0.67 -0.37 19.20
0.63 0.66 -0.41 20.00
0.61 0.66 -0.44 19.30
0.60 0.65 -0.48 20.20
0.58 0.63 -0.51 17.20
0.56 0.62 -0.54 19.40
0.55 0.61 -0.57 17.30
0.53 0.60 -0.60 21.80
0.60 0.53 -0.60 17.90
0.57 0.55 -0.61 19.20
0.54 0.56 -0.62 18.40
0.51 0.58 -0.63 19.70
0.48 0.60 -0.65 18.80
0.44 0.61 -0.66 18.80
0.41 0.63 -0.66 19.40
0.37 0.64 -0.67 20.70
0.33 0.65 -0.68 21.00
0.29 0.67 -0.69 20.00
0.25 0.68 -0.70 20.70
0.20 0.69 -0.70 19.80
0.16 0.69 -0.70 21.70
0.11 0.70 -0.71 21.00
0.07 0.70 -0.71 19.70
0.02 0.70 -0.71 17.60
-0.02 0.70 -0.71 22.00
-0.07 0.70 -0.71 21.50
-0.11 0.70 -0.71 21.30
-0.16 0.69 -0.70 20.20
-0.20 0.69 -0.70 21.20
-0.25 0.68 -0.70 21.90
-0.29 0.67 -0.69 22.80
-0.33 0.65 -0.68 22.40
-0.37 0.64 -0.67 20.00
-0.41 0.63 -0.66 21.60
-0.44 0.61 -0.66 18.40
-0.48 0.60 -0.65 19.50
-0.51 0.58 -0.63 22.00
-0.54 0.56 -0.62 17.00
-0.57 0.55 -0.61 19.80
-0.60 0.53 -0.60 23.70
0.61 0.55 -0.57 20.60
0.58 0.56 -0.58 19.20
0.55 0.58 -0.60 18.60
0.52 0.60 -0.61 21.30
0.49 0.62 -0.62 24.30
0.45 0.64 -0.63 19.20
0.42 0.65 -0.64 21.00
0.38 0.67 -0.64 20.60
0.34 0.68 -0.65 20.20
0.30 0.69 -0.66 21.20
0.25 0.70 -0.67 19.10
0.21 0.71 -0.67 21.10
0.16 0.72 -0.68 20.00
0.12 0.72 -0.68 19.20
0.07 0.73 -0.68 18.60
0.02 0.73 -0.68 18.90
-0.02 0.73 -0.68 18.80
-0.07 0.73 -0.68 18.50
-0.12 0.72 -0.68 20.80
-0.16 0.72 -0.68 21.20
-0.21 0.71 -0.67 20.30
-0.25 0.70 -0.67 20.70
-0.30 0.69 -0.66 19.30
-0.34 0.68 -0.65 20.40
-0.38 0.67 -0.64 18.40
-0.42 0.65 -0.64 23.20
-0.45 0.64 -0.63 22.10
-0.49 0.62 -0.62 18.90
-0.52 0.60 -0.61 18.80
-0.55 0.58 -0.60 21.30
-0.58 0.56 -0.58 22.40
-0.61 0.55 -0.57 17.70
0.62 0.56 -0.54 20.80
0.60 0.58 -0.55 22.60
0.56 0.60 -0.56 18.20
0.53 0.62 -0.57 23.50
0.50 0.64 -0.58 22.10
0.46 0.66 -0.60 19.50
0.42 0.67 -0.60 21.20
0.39 0.69 -0.61 21.20
0.35 0.70 -0.62 21.70
0.30 0.72 -0.63 20.70
0.26 0.73 -0.63 21.80
0.21 0.74 -0.64 21.00
0.17 0.75 -0.64 20.30
0.12 0.75 -0.65 19.80
0.07 0.76 -0.65 20.70
0.02 0.76 -0.65 18.40
-0.02 0.76 -0.65 20.80
-0.07 0.76 -0.65 18.20
-0.12 0.75 -0.65 20.20
-0.17 0.75 -0.64 19.80
-0.21 0.74 -0.64 20.50
-0.26 0.73 -0.63 19.50
-0.30 0.72 -0.63 20.10
-0.35 0.70 -0.62 20.00
-0.39 0.69 -0.61 20.00
-0.42 0.67 -0.60 21.70
-0.46 0.66 -0.60 16.80
-0.50 0.64 -0.58 22.40
-0.53 0.62 -0.57 19.50
-0.56 0.60 -0.56 19.20
-0.60 0.58 -0.55 22.90
-0.62 0.56 -0.54 22.60
0.63 0.58 -0.51 25.90
0.61 0.60 -0.52 22.40
0.57 0.62 -0.53 21.50
0.54 0.64 -0.54 22.60
0.51 0.66 -0.55 19.00
0.47 0.68 -0.56 22.40
0.43 0.70 -0.57 22.20
0.39 0.71 -0.58 22.70
0.35 0.73 -0.59 22.50
0.31 0.74 -0.59 20.20
0.26 0.75 -0.60 20.30
0.22 0.77 -0.60 22.50
0.17 0.78 -0.61 20.30
0.12 0.78 -0.61 19.20
0.07 0.79 -0.61 20.70
0.03 0.79 -0.62 20.20
-0.03 0.79 -0.62 21.60
-0.07 0.79 -0.61 19.90
-0.12 0.78 -0.61 20.70
-0.17 0.78 -0.61 19.20
-0.22 0.77 -0.60 21.70
-0.26 0.75 -0.60 20.40
-0.31 0.74 -0.59 21.50
-0.35 0.73 -0.59 22.20
-0.39 0.71 -0.58 19.80
-0.43 0.70 -0.57 20.80
-0.47 0.68 -0.56 18.90
-0.51 0.66 -0.55 20.20
-0.54 0.64 -0.54 20.80
-0.57 0.62 -0.53 17.80
-0.61 0.60 -0.52 25.80
-0.63 0.58 -0.51 26.70
0.65 0.60 -0.48 23.60
0.62 0.62 -0.49 21.50
0.58 0.64 -0.50 21.20
0.55 0.66 -0.51 17.50
0.52 0.68 -0.52 19.70
0.48 0.70 -0.53 22.00
0.44 0.72 -0.54 20.10
0.40 0.74 -0.54 21.60
0.36 0.75 -0.55 21.20
0.32 0.77 -0.56 20.60
0.27 0.78 -0.56 20.70
0.22 0.79 -0.57 19.50
0.17 0.80 -0.57 20.00
0.13 0.81 -0.57 19.40
0.08 0.81 -0.58 19.60
0.03 0.81 -0.58 20.50
-0.03 0.81 -0.58 20.90
-0.08 0.81 -0.58 20.30
-0.13 0.81 -0.57 20.60
-0.17 0.80 -0.57 20.30
-0.22 0.79 -0.57 20.40
-0.27 0.78 -0.56 22.00
-0.32 0.77 -0.56 18.40
-0.36 0.75 -0.55 21.30
-0.40 0.74 -0.54 20.00
-0.44 0.72 -0.54 20.40
-0.48 0.70 -0.53 19.20
-0.52 0.68 -0.52 21.50
-0.55 0.66 -0.51 21.40
-0.58 0.64 -0.50 20.30
-0.62 0.62 -0.49 20.30
-0.65 0.60 -0.48 22.00
0.66 0.61 -0.44 24.10
0.63 0.64 -0.45 25.20
0.60 0.66 -0.46 21.30
0.56 0.68 -0.47 20.90
0.53 0.70 -0.48 21.50
0.49 0.72 -0.49 20.30
0.45 0.74 -0.50 20.60
0.41 0.76 -0.50 20.10
0.37 0.78 -0.51 21.30
0.32 0.79 -0.52 22.00
0.28 0.81 -0.52 20.10
0.23 0.82 -0.53 20.80
0.18 0.83 -0.53 19.90
0.13 0.84 -0.54 20.70
0.08 0.84 -0.54 20.00
0.03 0.84 -0.54 18.70
-0.03 0.84 -0.54 19.10
-0.08 0.84 -0.54 20.80
-0.13 0.84 -0.54 18.80
-0.18 0.83 -0.53 20.00
-0.23 0.82 -0.53 19.70
-0.28 0.81 -0.52 21.40
-0.32 0.79 -0.52 18.80
-0.37 0.78 -0.51 20.80
-0.41 0.76 -0.50 19.00
-0.45 0.74 -0.50 20.80
-0.49 0.72 -0.49 19.80
-0.53 0.70 -0.48 20.30
-0.56 0.68 -0.47 22.20
-0.60 0.66 -0.46 20.20
-0.63 0.64 -0.45 22.80
-0.66 0.61 -0.44 20.00
0.66 0.63 -0.41 20.90
0.64 0.65 -0.42 21.90
0.60 0.67 -0.42 21.20
0.57 0.70 -0.43 18.80
0.54 0.72 -0.44 20.90
0.50 0.74 -0.45 22.60
0.46 0.76 -0.46 20.60
0.42 0.78 -0.47 20.70
0.37 0.80 -0.47 21.60
0.33 0.81 -0.48 19.30
0.28 0.83 -0.48 18.90
0.23 0.84 -0.49 20.60
0.18 0.85 -0.49 20.60
0.13 0.86 -0.49 20.50
0.08 0.86 -0.50 20.50
0.03 0.87 -0.50 20.70
-0.03 0.87 -0.50 19.60
-0.08 0.86 -0.50 19.00
-0.13 0.86 -0.49 20.70
-0.18 0.85 -0.49 18.80
-0.23 0.84 -0.49 19.50
-0.28 0.83 -0.48 20.80
-0.33 0.81 -0.48 21.20
-0.37 0.80 -0.47 17.50
-0.42 0.78 -0.47 21.60
-0.46 0.76 -0.46 18.70
-0.50 0.74 -0.45 17.20
-0.54 0.72 -0.44 20.60
-0.57 0.70 -0.43 21.30
-0.60 0.67 -0.42 18.20
-0.64 0.65 -0.42 21.60
-0.66 0.63 -0.41 24.40
0.67 0.64 -0.37 23.20
0.64 0.67 -0.38 22.60
0.61 0.69 -0.39 22.00
0.58 0.71 -0.39 22.20
0.54 0.74 -0.40 18.80
0.50 0.76 -0.41 22.40
0.47 0.78 -0.42 21.70
0.42 0.80 -0.42 21.40
0.38 0.82 -0.43 21.20
0.33 0.84 -0.44 21.50
0.28 0.85 -0.44 20.40
0.23 0.86 -0.44 21.60
0.18 0.88 -0.45 18.50
0.13 0.88 -0.45 20.10
0.08 0.89 -0.45 19.60
0.03 0.89 -0.45 19.20
-0.03 0.89 -0.45 20.70
-0.08 0.89 -0.45 19.10
-0.13 0.88 -0.45 19.40
-0.18 0.88 -0.45 19.40
-0.23 0.86 -0.44 19.80
-0.28 0.85 -0.44 18.40
-0.33 0.84 -0.44 21.10
-0.38 0.82 -0.43 20.00
-0.42 0.80 -0.42 20.40
-0.47 0.78 -0.42 20.20
-0.50 0.76 -0.41 21.00
-0.54 0.74 -0.40 20.10
-0.58 0.71 -0.39 21.40
-0.61 0.69 -0.39 20.40
-0.64 0.67 -0.38 24.70
-0.67 0.64 -0.37 25.30
0.68 0.65 -0.33 23.30
0.65 0.68 -0.34 20.70
0.62 0.70 -0.35 17.80
0.59 0.73 -0.35 21.00
0.55 0.75 -0.36 20.10
0.51 0.78 -0.37 21.20
0.47 0.80 -0.37 20.40
0.43 0.82 -0.38 21.70
0.38 0.84 -0.38 21.80
0.34 0.86 -0.39 20.90
0.29 0.87 -0.39 19.20
0.24 0.89 -0.40 19.30
0.19 0.90 -0.40 20.00
0.13 0.90 -0.40 18.80
0.08 0.91 -0.41 19.20
0.03 0.91 -0.41 20.50
-0.03 0.91 -0.41 20.70
-0.08 0.91 -0.41 19.60
-0.13 0.90 -0.40 20.30
-0.19 0.90 -0.40 19.10
-0.24 0.89 -0.40 20.00
-0.29 0.87 -0.39 21.10
-0.34 0.86 -0.39 19.70
-0.38 0.84 -0.38 21.20
-0.43 0.82 -0.38 19.60
-0.47 0.80 -0.37 20.80
-0.51 0.78 -0.37 20.20
-0.55 0.75 -0.36 17.20
-0.59 0.73 -0.35 22.00
-0.62 0.70 -0.35 20.40
-0.65 0.68 -0.34 20.80
-0.68 0.65 -0.33 20.60
0.69 0.67 -0.29 26.20
0.66 0.69 -0.30 22.70
0.63 0.72 -0.30 21.10
0.59 0.74 -0.31 21.00
0.56 0.77 -0.32 21.10
0.52 0.79 -0.32 20.70
0.48 0.81 -0.33 19.50
0.44 0.84 -0.33 21.30
0.39 0.86 -0.34 22.10
0.34 0.88 -0.34 21.10
0.29 0.89 -0.35 21.00
0.24 0.90 -0.35 21.30
0.19 0.92 -0.35 20.00
0.14 0.93 -0.35 20.80
0.08 0.93 -0.35 19.60
0.03 0.93 -0.36 20.40
-0.03 0.93 -0.36 19.50
-0.08 0.93 -0.35 19.80
-0.14 0.93 -0.35 20.20
-0.19 0.92 -0.35 20.00
-0.24 0.90 -0.35 20.10
-0.29 0.89 -0.35 20.40
-0.34 0.88 -0.34 20.80
-0.39 0.86 -0.34 19.60
-0.44 0.84 -0.33 18.80
-0.48 0.81 -0.33 20.30
-0.52 0.79 -0.32 19.10
-0.56 0.77 -0.32 19.00
-0.59 0.74 -0.31 21.60
-0.63 0.72 -0.30 19.80
-0.66 0.69 -0.30 19.20
-0.69 0.67 -0.29 19.30
0.70 0.68 -0.25 22.60
0.67 0.70 -0.25 22.40
0.63 0.73 -0.26 19.70
0.60 0.75 -0.26 20.40
0.56 0.78 -0.27 19.40
0.52 0.81 -0.28 18.40
0.48 0.83 -0.28 21.30
0.44 0.85 -0.28 22.60
0.39 0.87 -0.29 22.00
0.35 0.89 -0.29 20.80
0.30 0.91 -0.30 20.80
0.25 0.92 -0.30 19.50
0.19 0.93 -0.30 19.30
0.14 0.94 -0.30 19.90
0.08 0.95 -0.30 20.20
0.03 0.95 -0.31 19.20
-0.03 0.95 -0.31 19.60
-0.08 0.95 -0.30 19.50
-0.14 0.94 -0.30 19.50
-0.19 0.93 -0.30 18.00
-0.25 0.92 -0.30 20.40
-0.30 0.91 -0.30 20.70
-0.35 0.89 -0.29 20.00
-0.39 0.87 -0.29 20.00
-0.44 0.85 -0.28 22.10
-0.48 0.83 -0.28 20.80
-0.52 0.81 -0.28 18.00
-0.56 0.78 -0.27 18.40
-0.60 0.75 -0.26 21.20
-0.63 0.73 -0.26 19.90
-0.67 0.70 -0.25 20.90
-0.70 0.68 -0.25 21.00
0.70 0.69 -0.20 20.90
0.67 0.71 -0.21 22.70
0.64 0.74 -0.21 22.50
0.60 0.77 -0.22 20.40
0.57 0.79 -0.22 21.20
0.53 0.82 -0.23 22.50
0.49 0.84 -0.23 20.00
0.44 0.86 -0.23 22.30
0.40 0.89 -0.24 22.30
0.35 0.90 -0.24 21.60
0.30 0.92 -0.25 19.40
0.25 0.94 -0.25 20.60
0.19 0.95 -0.25 20.40
0.14 0.96 -0.25 19.70
0.08 0.96 -0.25 20.40
0.03 0.97 -0.25 20.00
-0.03 0.97 -0.25 20.40
-0.08 0.96 -0.25 19.10
-0.14 0.96 -0.25 19.90
-0.19 0.95 -0.25 21.00
-0.25 0.94 -0.25 22.10
-0.30 0.92 -0.25 20.90
-0.35 0.90 -0.24 20.70
-0.40 0.89 -0.24 20.10
-0.44 0.86 -0.23 20.40
-0.49 0.84 -0.23 20.90
-0.53 0.82 -0.23 19.30
-0.57 0.79 -0.22 20.00
-0.60 0.77 -0.22 20.80
-0.64 0.74 -0.21 19.80
-0.67 0.71 -0.21 24.20
-0.70 0.69 -0.20 24.80
0.70 0.69 -0.16 20.80
0.68 0.72 -0.16 22.50
0.64 0.75 -0.17 20.70
0.61 0.78 -0.17 20.40
0.57 0.80 -0.17 20.40
0.53 0.83 -0.18 20.20
0.49 0.85 -0.18 20.90
0.45 0.88 -0.18 22.60
0.40 0.90 -0.19 22.40
0.35 0.92 -0.19 19.70
0.30 0.93 -0.19 21.70
0.25 0.95 -0.19 20.00
0.20 0.96 -0.20 19.90
0.14 0.97 -0.20 21.00
0.09 0.98 -0.20 20.30
0.03 0.98 -0.20 19.90
-0.03 0.98 -0.20 18.70
-0.09 0.98 -0.20 19.30
-0.14 0.97 -0.20 20.60
-0.20 0.96 -0.20 20.70
-0.25 0.95 -0.19 21.60
-0.30 0.93 -0.19 22.60
-0.35 0.92 -0.19 20.40
-0.40 0.90 -0.19 21.30
-0.45 0.88 -0.18 19.60
-0.49 0.85 -0.18 19.80
-0.53 0.83 -0.18 18.80
-0.57 0.80 -0.17 20.00
-0.61 0.78 -0.17 20.40
-0.64 0.75 -0.17 19.40
-0.68 0.72 -0.16 20.40
-0.70 0.69 -0.16 20.80
0.71 0.70 -0.11 22.90
0.68 0.72 -0.12 23.20
0.65 0.75 -0.12 22.50
0.61 0.78 -0.12 21.70
0.57 0.81 -0.13 21.60
0.54 0.84 -0.13 20.10
0.49 0.86 -0.13 21.40
0.45 0.88 -0.13 20.80
0.40 0.90 -0.13 21.40
0.35 0.93 -0.14 21.50
0.30 0.94 -0.14 22.10
0.25 0.96 -0.14 21.60
0.20 0.97 -0.14 19.90
0.14 0.98 -0.14 20.70
0.09 0.99 -0.14 19.70
0.03 0.99 -0.14 18.80
-0.03 0.99 -0.14 20.80
-0.09 0.99 -0.14 19.10
-0.14 0.98 -0.14 20.20
-0.20 0.97 -0.14 22.00
-0.25 0.96 -0.14 21.80
-0.30 0.94 -0.14 21.50
-0.35 0.93 -0.14 20.00
-0.40 0.90 -0.13 19.90
-0.45 0.88 -0.13 19.30
-0.49 0.86 -0.13 21.20
-0.54 0.84 -0.13 19.30
-0.57 0.81 -0.13 18.30
-0.61 0.78 -0.12 18.40
-0.65 0.75 -0.12 20.10
-0.68 0.72 -0.12 20.50
-0.71 0.70 -0.11 19.50
0.71 0.70 -0.07 20.40
0.68 0.73 -0.07 20.80
0.65 0.76 -0.07 21.10
0.61 0.79 -0.07 21.70
0.58 0.81 -0.08 22.00
0.54 0.84 -0.08 19.20
0.50 0.86 -0.08 22.00
0.45 0.89 -0.08 21.40
0.41 0.91 -0.08 22.40
0.35 0.93 -0.08 20.60
0.30 0.95 -0.08 21.00
0.25 0.96 -0.08 20.40
0.20 0.98 -0.09 19.70
0.14 0.99 -0.09 19.70
0.09 0.99 -0.09 20.40
0.03 1.00 -0.09 19.40
-0.03 1.00 -0.09 19.60
-0.09 0.99 -0.09 18.90
-0.14 0.99 -0.09 20.00
-0.20 0.98 -0.09 21.30
-0.25 0.96 -0.08 21.60
-0.30 0.95 -0.08 21.80
-0.35 0.93 -0.08 22.00
-0.41 0.91 -0.08 19.00
-0.45 0.89 -0.08 20.40
-0.50 0.86 -0.08 20.10
-0.54 0.84 -0.08 18.30
-0.58 0.81 -0.08 19.30
-0.61 0.79 -0.07 17.80
-0.65 0.76 -0.07 19.40
-0.68 0.73 -0.07 19.30
-0.71 0.70 -0.07 20.50
0.71 0.70 -0.02 21.20
0.68 0.73 -0.02 22.70
0.65 0.76 -0.02 20.70
0.62 0.79 -0.03 20.50
0.58 0.81 -0.03 21.20
0.54 0.84 -0.03 22.30
0.50 0.87 -0.03 20.90
0.45 0.89 -0.03 22.10
0.41 0.91 -0.03 22.00
0.36 0.93 -0.03 21.50
0.31 0.95 -0.03 20.60
0.25 0.97 -0.03 20.90
0.20 0.98 -0.03 20.50
0.14 0.99 -0.03 20.00
0.09 1.00 -0.03 20.70
0.03 1.00 -0.03 20.40
-0.03 1.00 -0.03 19.70
-0.09 1.00 -0.03 20.50
-0.14 0.99 -0.03 20.90
-0.20 0.98 -0.03 21.10
-0.25 0.97 -0.03 21.10
-0.31 0.95 -0.03 21.40
-0.36 0.93 -0.03 21.00
-0.41 0.91 -0.03 20.20
-0.45 0.89 -0.03 19.70
-0.50 0.87 -0.03 20.00
-0.54 0.84 -0.03 19.90
-0.58 0.81 -0.03 20.70
-0.62 0.79 -0.03 19.60
-0.65 0.76 -0.02 20.10
-0.68 0.73 -0.02 24.00
-0.71 0.70 -0.02 24.30
0.71 0.70 0.02 22.00
0.68 0.73 0.02 21.00
0.65 0.76 0.02 21.80
0.62 0.79 0.03 21.00
0.58 0.81 0.03 20.40
0.54 0.84 0.03 20.40
0.50 0.87 0.03 21.10
0.45 0.89 0.03 20.70
0.41 0.91 0.03 20.40
0.36 0.93 0.03 20.70
0.31 0.95 0.03 20.80
0.25 0.97 0.03 20.30
0.20 0.98 0.03 20.00
0.14 0.99 0.03 20.60
0.09 1.00 0.03 20.60
0.03 1.00 0.03 19.50
-0.03 1.00 0.03 21.20
-0.09 1.00 0.03 21.50
-0.14 0.99 0.03 20.10
-0.20 0.98 0.03 21.30
-0.25 0.97 0.03 20.50
-0.31 0.95 0.03 20.60
-0.36 0.93 0.03 21.00
